# .PCD v0.7 - Point Cloud Data file format
VERSION 0.7
FIELDS x y z intensity
SIZE 4 4 4 4
TYPE F F F F
COUNT 1 1 1 1
WIDTH 758
HEIGHT 1
VIEWPOINT 0 0 0 1 0 0 0
POINTS 758
DATA ascii
1.71890907e+01 -4.67185745e+01 -8.68920386e-01  6.20000000e+01
1.42939353e+00 -3.90388966e+00 -1.11395729e+00  7.00000000e+00
1.70896568e+01 -4.66996803e+01  8.68012905e-01  3.10000000e+01
1.38830268e+00 -3.79576778e+00 -9.33097005e-01  8.00000000e+00
1.70737305e+01 -4.66814003e+01  2.60497022e+00  4.50000000e+01
1.42291510e+00 -3.89250755e+00 -8.05595636e-01  2.20000000e+01
1.70377254e+01 -4.66334114e+01  4.34366751e+00  2.00000000e+01
4.72464132e+00 -1.29386692e+01 -2.18163538e+00  2.80000000e+01
1.75709381e+01 -4.81449776e+01  6.29284573e+00  3.30000000e+01
4.71816969e+00 -1.29349613e+01 -1.69057167e+00  2.00000000e+01
4.73666000e+00 -1.29926968e+01 -1.20989597e+00  1.90000000e+01
4.77239418e+00 -1.31049290e+01 -7.30924010e-01  3.00000000e+00
1.70040207e+01 -4.67181625e+01 -8.67803454e-01  6.20000000e+01
1.41707361e+00 -3.91248775e+00 -1.11499250e+00  1.20000000e+01
1.69183617e+01 -4.67109718e+01  8.67175221e-01  3.10000000e+01
1.37769759e+00 -3.80584764e+00 -9.34446692e-01  1.00000000e+00
1.68984451e+01 -4.67069092e+01  2.60308599e+00  4.50000000e+01
1.40731657e+00 -3.89191175e+00 -8.04450750e-01  6.00000000e+00
1.68667145e+01 -4.66701164e+01  4.34157610e+00  2.00000000e+01
4.67835236e+00 -1.29449778e+01 -2.18007088e+00  3.10000000e+01
1.73761158e+01 -4.81058960e+01  6.28017139e+00  3.20000000e+01
4.67187881e+00 -1.29412012e+01 -1.68935299e+00  2.20000000e+01
4.68789959e+00 -1.29997797e+01 -1.20902443e+00  2.20000000e+01
4.72213840e+00 -1.31018934e+01 -7.29877353e-01  3.00000000e+00
1.68259449e+01 -4.67358398e+01 -8.67035568e-01  6.20000000e+01
1.32847631e+00 -3.70621300e+00 -1.05494642e+00  1.30000000e+01
1.67444096e+01 -4.67396240e+01  8.66616726e-01  3.10000000e+01
1.28426147e+00 -3.58680201e+00 -8.79558623e-01  3.00000000e+00
1.67178116e+01 -4.67167168e+01  2.60036445e+00  4.50000000e+01
1.38646495e+00 -3.87437582e+00 -7.99871385e-01  2.00000000e+00
1.67038040e+01 -4.67032776e+01  4.33948421e+00  2.00000000e+01
4.62715197e+00 -1.29444876e+01 -2.17725515e+00  3.60000000e+01
1.72521667e+01 -4.82896347e+01  6.29625797e+00  3.30000000e+01
4.61800051e+00 -1.29331264e+01 -1.68618441e+00  2.00000000e+01
4.64074707e+00 -1.30039949e+01 -1.20797861e+00  2.40000000e+01
4.66564655e+00 -1.30881968e+01 -7.28202581e-01  3.00000000e+00
1.66573277e+01 -4.67792168e+01 -8.66756320e-01  6.20000000e+01
1.33554161e+00 -3.76727295e+00 -1.07099319e+00  1.30000000e+01
1.65624599e+01 -4.67450104e+01  8.65639389e-01  3.10000000e+01
1.22945058e+00 -3.47186089e+00 -8.50314975e-01  9.00000000e+00
1.65346413e+01 -4.67183037e+01  2.59722447e+00  4.40000000e+01
1.37424159e+00 -3.88289285e+00 -8.00634563e-01  1.70000000e+01
1.65207481e+01 -4.67049484e+01  4.33425522e+00  2.00000000e+01
4.58128071e+00 -1.29586983e+01 -2.17694235e+00  4.00000000e+01
1.72686710e+01 -4.88736382e+01  6.36450529e+00  3.40000000e+01
4.56489658e+00 -1.29267054e+01 -1.68325949e+00  2.00000000e+01
4.59665203e+00 -1.30238724e+01 -1.20832717e+00  2.40000000e+01
4.61993122e+00 -1.31044025e+01 -7.28202581e-01  3.00000000e+00
1.64700279e+01 -4.67691765e+01 -8.65499735e-01  6.20000000e+01
1.33772266e+00 -3.81566596e+00 -1.08341658e+00  1.10000000e+01
1.63912582e+01 -4.67798920e+01  8.65220547e-01  3.10000000e+01
1.20766270e+00 -3.44854283e+00 -8.43566477e-01  1.50000000e+01
1.63664284e+01 -4.67351761e+01  2.59513092e+00  4.40000000e+01
1.35614014e+00 -3.87469530e+00 -7.97963262e-01  5.00000000e+00
1.63457699e+01 -4.67284851e+01  4.33111763e+00  2.00000000e+01
4.52950048e+00 -1.29559641e+01 -2.17381358e+00  4.00000000e+01
4.51385403e+00 -1.29256954e+01 -1.68106592e+00  1.50000000e+01
4.56100988e+00 -1.30680561e+01 -1.21094191e+00  8.00000000e+00
4.57547474e+00 -1.31242208e+01 -7.28411913e-01  3.00000000e+00
1.63095818e+01 -4.68084297e+01 -8.65220547e-01  6.10000000e+01
1.30604517e+00 -3.76737881e+00 -1.06840503e+00  3.00000000e+00
1.19239211e+00 -3.44148064e+00 -8.40867043e-01  3.30000000e+01
1.62162628e+01 -4.68297691e+01  2.59722447e+00  4.40000000e+01
4.29685450e+00 -1.24155827e+01 -2.55378771e+00  2.00000000e+00
1.61669312e+01 -4.67400665e+01  4.32693386e+00  2.00000000e+01
4.47811747e+00 -1.29466448e+01 -2.16974640e+00  3.90000000e+01
4.46707773e+00 -1.29293346e+01 -1.67960346e+00  1.50000000e+01
4.54461622e+00 -1.31686487e+01 -1.21878588e+00  2.00000000e+00
4.52411270e+00 -1.31166639e+01 -7.27155864e-01  1.20000000e+01
1.00571117e+01 -2.91914101e+01 -5.38930297e-01  1.60000000e+01
1.30294549e+00 -3.79909945e+00 -1.07616961e+00  1.40000000e+01
9.87118816e+00 -2.87985783e+01  5.31390905e-01  1.40000000e+01
1.17974067e+00 -3.44377804e+00 -8.40417087e-01  2.70000000e+01
4.25438690e+00 -1.24260483e+01 -2.55302453e+00  2.00000000e+00
1.59937830e+01 -4.67406387e+01  4.32205343e+00  4.10000000e+01
4.42522860e+00 -1.29397669e+01 -2.16599178e+00  3.90000000e+01
1.04790926e+01 -3.06592979e+01  3.97830319e+00  1.30000000e+01
4.42127657e+00 -1.29429693e+01 -1.67935967e+00  1.50000000e+01
4.43814135e+00 -1.30071812e+01 -1.20240057e+00  2.20000000e+01
4.46669722e+00 -1.30983505e+01 -7.25271761e-01  3.10000000e+01
9.67661381e+00 -2.84086075e+01 -5.23851454e-01  1.50000000e+01
1.27723205e+00 -3.76908636e+00 -1.06633461e+00  1.40000000e+01
1.17583847e+00 -3.47187018e+00 -8.46265852e-01  1.60000000e+01
4.21384907e+00 -1.24564362e+01 -2.55607748e+00  2.00000000e+00
1.58108749e+01 -4.67649651e+01  4.31891537e+00  2.00000000e+01
4.37524080e+00 -1.29484148e+01 -2.16474032e+00  4.00000000e+01
1.03720064e+01 -3.06956902e+01  3.97830319e+00  1.30000000e+01
4.37162590e+00 -1.29451590e+01 -1.67765355e+00  1.50000000e+01
4.38761663e+00 -1.30074921e+01 -1.20100617e+00  2.70000000e+01
4.41292000e+00 -1.30975990e+01 -7.24329710e-01  2.80000000e+01
1.27143157e+00 -3.79550314e+00 -1.07254612e+00  1.10000000e+01
9.03128624e+00 -2.69760208e+01  4.96555865e-01  1.30000000e+01
1.17052603e+00 -3.49833322e+00 -8.51664722e-01  1.40000000e+01
1.57503319e+01 -4.70727730e+01  2.60141134e+00  4.50000000e+01
4.16909456e+00 -1.24673443e+01 -2.55531406e+00  2.00000000e+00
1.56349125e+01 -4.67820816e+01  4.31542969e+00  4.10000000e+01
4.32501030e+00 -1.29486189e+01 -2.16223741e+00  3.90000000e+01
4.31472635e+00 -1.29328489e+01 -1.67399752e+00  1.30000000e+01
4.33714437e+00 -1.30076065e+01 -1.19961166e+00  1.00000000e+01
4.36843538e+00 -1.31167126e+01 -7.24539042e-01  3.10000000e+01
8.87682915e+00 -2.66691914e+01 -4.90622044e-01  2.80000000e+01
1.26121056e+00 -3.80908799e+00 -1.07513440e+00  1.60000000e+01
8.82612705e+00 -2.66565285e+01  4.90133405e-01  5.20000000e+01
1.16504109e+00 -3.52069616e+00 -8.56163740e-01  1.40000000e+01
4.11815786e+00 -1.24594526e+01 -2.55073476e+00  2.00000000e+00
1.54627666e+01 -4.68098869e+01  4.31298923e+00  2.00000000e+01
4.27956867e+00 -1.29553881e+01 -2.16098595e+00  3.70000000e+01
4.27305889e+00 -1.29508562e+01 -1.67448497e+00  7.00000000e+00
4.31353760e+00 -1.30888977e+01 -1.20571256e+00  1.10000000e+01
4.32116747e+00 -1.31197453e+01 -7.23911047e-01  4.00000000e+01
1.04721785e+01 -3.18325901e+01 -5.84934890e-01  1.80000000e+01
1.21550965e+00 -3.71227264e+00 -1.04666424e+00  9.00000000e+00
8.72805119e+00 -2.66719685e+01  4.89854127e-01  2.60000000e+01
1.14184046e+00 -3.49140191e+00 -8.48065495e-01  1.60000000e+01
4.07803726e+00 -1.24767733e+01 -2.55149794e+00  2.00000000e+00
1.52938471e+01 -4.68192368e+01  4.30915403e+00  2.00000000e+01
4.23064089e+00 -1.29589796e+01 -2.15910888e+00  3.70000000e+01
4.21674967e+00 -1.29317207e+01 -1.67009759e+00  5.00000000e+00
4.25714636e+00 -1.30633478e+01 -1.20205200e+00  1.10000000e+01
4.26977873e+00 -1.31176567e+01 -7.22968996e-01  2.50000000e+01
8.70032310e+00 -2.67609406e+01 -4.91180539e-01  1.40000000e+01
1.22633314e+00 -3.79001379e+00 -1.06736970e+00  1.30000000e+01
8.68411446e+00 -2.68544865e+01  4.92646515e-01  1.30000000e+01
1.11885941e+00 -3.46198869e+00 -8.39967251e-01  1.30000000e+01
4.04049587e+00 -1.25096130e+01 -2.55531406e+00  2.00000000e+00
1.51180773e+01 -4.68344231e+01  4.30566788e+00  4.10000000e+01
4.17749691e+00 -1.29492283e+01 -2.15504146e+00  3.40000000e+01
4.16914749e+00 -1.29388056e+01 -1.66912270e+00  3.00000000e+00
4.21762800e+00 -1.30970936e+01 -1.20379508e+00  5.00000000e+00
4.22090721e+00 -1.31229744e+01 -7.22445607e-01  2.50000000e+01
8.66679668e+00 -2.69777260e+01 -4.94601220e-01  1.40000000e+01
1.19191670e+00 -3.72802806e+00 -1.04873478e+00  1.30000000e+01
8.64266682e+00 -2.70484505e+01  4.95648354e-01  1.30000000e+01
1.10617518e+00 -3.46401691e+00 -8.39517295e-01  3.00000000e+00
4.00157976e+00 -1.25386047e+01 -2.55836725e+00  2.00000000e+00
1.49399767e+01 -4.68413506e+01  4.30148458e+00  4.10000000e+01
4.13047028e+00 -1.29580860e+01 -2.15410280e+00  3.60000000e+01
4.12154865e+00 -1.29457121e+01 -1.66814768e+00  1.00000000e+00
4.22021198e+00 -1.32636251e+01 -1.21774006e+00  5.00000000e+00
4.16963053e+00 -1.31204958e+01 -7.21503556e-01  2.50000000e+01
8.63428020e+00 -2.72022247e+01 -4.98161495e-01  1.40000000e+01
1.17773247e+00 -3.72848201e+00 -1.04769957e+00  1.40000000e+01
8.59997082e+00 -2.72424507e+01  4.98650134e-01  1.30000000e+01
1.25414252e+00 -3.97521257e+00 -9.62340653e-01  1.00000000e+01
1.48651400e+01 -4.71461983e+01  2.59073472e+00  4.40000000e+01
3.95306396e+00 -1.25375166e+01 -2.55531406e+00  2.00000000e+00
1.47655935e+01 -4.68590088e+01  4.29834652e+00  4.10000000e+01
4.08402586e+00 -1.29686565e+01 -2.15347719e+00  3.60000000e+01
4.07156801e+00 -1.29448719e+01 -1.66619778e+00  1.00000000e+00
4.23483038e+00 -1.34721451e+01 -1.23551977e+00  2.00000000e+00
4.12141132e+00 -1.31273489e+01 -7.21084893e-01  3.10000000e+01
8.59192944e+00 -2.74001102e+01 -5.01233101e-01  1.40000000e+01
1.17046523e+00 -3.75101185e+00 -1.05287600e+00  9.00000000e+00
8.57030678e+00 -2.74822979e+01  5.02489686e-01  1.30000000e+01
1.18285584e+00 -3.79537845e+00 -9.17800367e-01  1.50000000e+01
1.28207457e+00 -4.11626625e+00 -8.38033140e-01  2.00000000e+00
1.45912800e+01 -4.68760262e+01  4.29520893e+00  4.10000000e+01
4.03638458e+00 -1.29752893e+01 -2.15222549e+00  3.60000000e+01
4.03224850e+00 -1.29779615e+01 -1.66863513e+00  1.00000000e+00
4.24922323e+00 -1.36847343e+01 -1.25364816e+00  5.00000000e+00
4.07497311e+00 -1.31397476e+01 -7.20980227e-01  3.10000000e+01
8.54474545e+00 -2.75865688e+01 -5.04095316e-01  1.40000000e+01
1.14313936e+00 -3.70892048e+00 -1.03993499e+00  9.00000000e+00
8.52377319e+00 -2.76725788e+01  5.05421698e-01  1.30000000e+01
1.16673350e+00 -3.79017162e+00 -9.15550768e-01  1.20000000e+01
1.26885247e+00 -4.12446976e+00 -8.38796437e-01  1.10000000e+01
1.44182005e+01 -4.68962021e+01  4.29242039e+00  4.10000000e+01
3.98410487e+00 -1.29666395e+01 -2.14847112e+00  4.00000000e+01
3.97527623e+00 -1.29540033e+01 -1.66376042e+00  1.00000000e+00
4.24933147e+00 -1.38556795e+01 -1.26794171e+00  8.00000000e+00
4.02615643e+00 -1.31443434e+01 -7.20456839e-01  3.40000000e+01
8.51157951e+00 -2.78227482e+01 -5.07865071e-01  1.40000000e+01
1.16000140e+00 -3.81083894e+00 -1.06736970e+00  1.10000000e+01
8.48881149e+00 -2.79049549e+01  5.09121597e-01  1.30000000e+01
1.15746391e+00 -3.80727267e+00 -9.18700099e-01  1.00000000e+01
1.42533398e+01 -4.69132538e+01  2.56959105e+00  4.30000000e+01
1.25901377e+00 -4.14390135e+00 -8.41849327e-01  1.20000000e+01
1.42463045e+01 -4.69195557e+01  4.28997993e+00  4.10000000e+01
3.93365788e+00 -1.29634552e+01 -2.14565539e+00  4.20000000e+01
3.93348646e+00 -1.29791994e+01 -1.66522288e+00  1.00000000e+00
4.21018028e+00 -1.39009371e+01 -1.27073073e+00  5.00000000e+00
3.97446656e+00 -1.31392002e+01 -7.19410121e-01  3.70000000e+01
8.46992779e+00 -2.80360546e+01 -5.11215925e-01  1.40000000e+01
1.14669228e+00 -3.81486487e+00 -1.06736970e+00  1.10000000e+01
8.44313335e+00 -2.81067791e+01  5.12263060e-01  1.30000000e+01
1.15425265e+00 -3.84488583e+00 -9.26798403e-01  8.00000000e+00
1.40791626e+01 -4.69282913e+01  2.56770706e+00  4.30000000e+01
1.19150984e+00 -3.97150874e+00 -8.05977225e-01  9.00000000e+00
1.40606976e+01 -4.68964729e+01  4.28335619e+00  2.00000000e+01
3.88441348e+00 -1.29638615e+01 -2.14346528e+00  4.00000000e+01
3.87791348e+00 -1.29586182e+01 -1.66083550e+00  1.00000000e+00
4.21186924e+00 -1.40835276e+01 -1.28607011e+00  3.00000000e+00
3.92400622e+00 -1.31376839e+01 -7.18572736e-01  3.40000000e+01
8.43488693e+00 -2.82762394e+01 -5.15055418e-01  1.50000000e+01
1.12347496e+00 -3.78550863e+00 -1.05805230e+00  1.30000000e+01
8.40524578e+00 -2.83392963e+01  5.15962958e-01  1.30000000e+01
1.14248574e+00 -3.85449696e+00 -9.28148091e-01  8.00000000e+00
1.18934870e+00 -4.01517439e+00 -8.13991249e-01  1.10000000e+01
3.83577490e+00 -1.29659767e+01 -2.14158797e+00  6.00000000e+00
3.83378100e+00 -1.29758844e+01 -1.66132307e+00  1.00000000e+00
4.35338259e+00 -1.47440071e+01 -1.34498739e+00  3.00000000e+00
3.87586236e+00 -1.31436396e+01 -7.18154073e-01  3.70000000e+01
8.38358974e+00 -2.84666405e+01 -5.17987430e-01  1.50000000e+01
1.12600660e+00 -3.84317088e+00 -1.07306385e+00  1.30000000e+01
8.36246109e+00 -2.85603790e+01  5.19453466e-01  1.30000000e+01
1.11370075e+00 -3.80609226e+00 -9.15550768e-01  1.00000000e+00
1.21004057e+00 -4.13801479e+00 -8.38033140e-01  1.30000000e+01
1.15957475e+00 -3.97058082e+00 -6.55147612e-01  1.00000000e+01
3.78290439e+00 -1.29701300e+01 -1.65888560e+00  1.00000000e+00
4.31080961e+00 -1.47897177e+01 -1.34777641e+00  3.00000000e+00
3.82661057e+00 -1.31455822e+01 -7.17526078e-01  3.40000000e+01
8.34780598e+00 -2.87146358e+01 -5.21966577e-01  1.50000000e+01
8.16324651e-01 -2.82267499e+00 -7.87327528e-01  4.00000000e+00
8.32046127e+00 -2.87891865e+01  5.23083568e-01  1.30000000e+01
1.11771190e+00 -3.86986780e+00 -9.29947674e-01  7.00000000e+00
9.25792217e+00 -3.20748291e+01  1.74959111e+00  1.70000000e+01
1.14441097e+00 -3.96490550e+00 -8.02161038e-01  1.30000000e+01
9.24191856e+00 -3.20403557e+01  2.91745138e+00  1.40000000e+01
1.14406669e+00 -3.96890998e+00 -6.54209018e-01  1.60000000e+01
3.73541212e+00 -1.29756260e+01 -1.65791070e+00  1.00000000e+00
3.77959657e+00 -1.31550198e+01 -7.17316687e-01  3.40000000e+01
8.30267715e+00 -2.89358139e+01 -5.25457084e-01  1.50000000e+01
8.15480471e-01 -2.85708785e+00 -7.96127439e-01  3.00000000e+00
8.27257252e+00 -2.90026627e+01  5.26434422e-01  1.30000000e+01
1.10312808e+00 -3.86999726e+00 -9.29047823e-01  7.00000000e+00
9.16998196e+00 -3.21914673e+01  1.75419676e+00  1.70000000e+01
1.16175973e+00 -4.07838869e+00 -8.24294925e-01  6.00000000e+00
9.16929436e+00 -3.22103882e+01  2.93000150e+00  1.40000000e+01
1.12155735e+00 -3.94247985e+00 -6.49203122e-01  1.30000000e+01
3.69226360e+00 -1.29962234e+01 -1.65888560e+00  3.00000000e+00
3.73038507e+00 -1.31566038e+01 -7.16688633e-01  3.70000000e+01
8.25828552e+00 -2.91647167e+01 -5.29087186e-01  1.50000000e+01
1.07051182e+00 -3.80082560e+00 -1.05805230e+00  1.30000000e+01
8.23087978e+00 -2.92431011e+01  5.30273914e-01  1.40000000e+01
1.09330618e+00 -3.88695621e+00 -9.32197154e-01  5.00000000e+00
9.10511971e+00 -3.23924828e+01  1.76340783e+00  1.80000000e+01
1.16982961e+00 -4.16179943e+00 -8.40322852e-01  2.00000000e+00
9.11930561e+00 -3.24647064e+01  2.95022202e+00  1.50000000e+01
1.09711111e+00 -3.90833330e+00 -6.42945707e-01  7.00000000e+00
3.63937545e+00 -1.29822731e+01 -1.65547335e+00  5.00000000e+00
3.67798114e+00 -1.31464643e+01 -7.15432584e-01  3.70000000e+01
8.21238899e+00 -2.93936672e+01 -5.32717288e-01  1.50000000e+01
7.98116446e-01 -2.87401819e+00 -7.99233198e-01  1.00000000e+00
8.17584038e+00 -2.94412117e+01  5.33345520e-01  1.40000000e+01
1.08181620e+00 -3.89825964e+00 -9.33996856e-01  1.20000000e+01
9.05283546e+00 -3.26434746e+01  1.77534044e+00  1.80000000e+01
3.50879431e+00 -1.26608849e+01 -2.55378771e+00  2.00000000e+00
9.05768871e+00 -3.27052841e+01  2.96904755e+00  1.50000000e+01
3.59134889e+00 -1.29763651e+01 -2.13251495e+00  9.00000000e+00
3.58821559e+00 -1.29738512e+01 -1.65279210e+00  7.00000000e+00
3.62870789e+00 -1.31560059e+01 -7.15223253e-01  3.70000000e+01
8.81114388e+00 -3.19668541e+01 -5.78791618e-01  1.80000000e+01
7.83485651e-01 -2.86001801e+00 -7.94574499e-01  4.00000000e+00
8.13440704e+00 -2.97140007e+01  5.37743568e-01  1.40000000e+01
1.01507056e+00 -3.71047211e+00 -8.88106763e-01  8.00000000e+00
8.98521519e+00 -3.28444061e+01  1.78455174e+00  1.80000000e+01
3.46665025e+00 -1.26806297e+01 -2.55531406e+00  2.00000000e+00
8.98967171e+00 -3.29058380e+01  2.98438668e+00  1.50000000e+01
3.55071425e+00 -1.30059729e+01 -2.13533068e+00  5.40000000e+01
3.54290628e+00 -1.29862976e+01 -1.65279210e+00  7.00000000e+00
3.58119130e+00 -1.31628113e+01 -7.14909256e-01  4.00000000e+01
8.68586445e+00 -3.19472466e+01 -5.77884138e-01  1.80000000e+01
1.06998217e+00 -3.95728874e+00 -1.09842813e+00  1.30000000e+01
8.09528828e+00 -2.99608841e+01  5.41722715e-01  1.40000000e+01
9.77361321e-01 -3.61974978e+00 -8.65611672e-01  1.10000000e+01
8.93560028e+00 -3.30938377e+01  1.79648411e+00  1.80000000e+01
3.41741824e+00 -1.26655197e+01 -2.54997158e+00  2.00000000e+00
8.93652344e+00 -3.31432190e+01  3.00321245e+00  1.50000000e+01
3.49831414e+00 -1.29833431e+01 -2.12969899e+00  3.90000000e+01
3.49879026e+00 -1.29941425e+01 -1.65230465e+00  9.00000000e+00
3.50554872e+00 -1.30373611e+01 -1.18113458e+00  2.00000000e+00
3.53544974e+00 -1.31668978e+01 -7.14490533e-01  4.30000000e+01
8.57780361e+00 -3.19681435e+01 -5.77744424e-01  3.70000000e+01
1.08374774e+00 -4.06160879e+00 -1.12638056e+00  1.00000000e+01
8.04122639e+00 -3.01575966e+01  5.44794321e-01  1.50000000e+01
9.62843597e-01 -3.61355543e+00 -8.63362193e-01  1.10000000e+01
8.86730862e+00 -3.33023872e+01  1.80611408e+00  1.80000000e+01
3.38126516e+00 -1.27077274e+01 -2.55607748e+00  2.00000000e+00
8.87472343e+00 -3.33536606e+01  3.01959777e+00  1.50000000e+01
3.45270228e+00 -1.29853287e+01 -2.12813473e+00  4.20000000e+01
3.45035529e+00 -1.29947643e+01 -1.65084219e+00  1.10000000e+01
3.47227120e+00 -1.30957384e+01 -1.18531811e+00  4.90000000e+01
3.48537874e+00 -1.31637125e+01 -7.13653147e-01  4.00000000e+01
8.46002007e+00 -3.19746971e+01 -5.77325642e-01  3.70000000e+01
1.06639779e+00 -4.05621099e+00 -1.12379229e+00  5.00000000e+00
8.82085800e+00 -3.35753479e+01  6.05947554e-01  1.80000000e+01
9.87200260e-01 -3.76031017e+00 -8.97554696e-01  9.00000000e+00
8.81411648e+00 -3.35974007e+01  1.82034945e+00  1.80000000e+01
3.32869172e+00 -1.26972466e+01 -2.55149794e+00  2.00000000e+00
8.81102562e+00 -3.36095276e+01  3.03981805e+00  1.60000000e+01
3.40158081e+00 -1.29845190e+01 -2.12594461e+00  3.70000000e+01
3.39968944e+00 -1.29958000e+01 -1.64937985e+00  1.30000000e+01
3.41367650e+00 -1.30678949e+01 -1.18165755e+00  2.80000000e+01
3.43257070e+00 -1.31590061e+01 -7.12711155e-01  3.70000000e+01
8.33772564e+00 -3.19861393e+01 -5.76976538e-01  5.50000000e+01
1.04619598e+00 -4.03952122e+00 -1.11809826e+00  1.20000000e+01
8.74784088e+00 -3.38010406e+01  6.09438062e-01  1.80000000e+01
9.52430546e-01 -3.68277645e+00 -8.78208935e-01  8.00000000e+00
8.73878670e+00 -3.37903900e+01  1.82914186e+00  1.90000000e+01
3.28926325e+00 -1.27277956e+01 -2.55531406e+00  2.00000000e+00
8.74158859e+00 -3.38499413e+01  3.05864358e+00  1.60000000e+01
3.35149908e+00 -1.29873352e+01 -2.12438035e+00  2.80000000e+01
3.35182595e+00 -1.29979773e+01 -1.64816105e+00  1.80000000e+01
3.36257458e+00 -1.30585079e+01 -1.17974007e+00  3.40000000e+01
3.38661432e+00 -1.31709080e+01 -7.12711155e-01  4.30000000e+01
8.22005367e+00 -3.19918079e+01 -5.76557755e-01  3.60000000e+01
1.04426992e+00 -4.08789015e+00 -1.13052154e+00  3.00000000e+00
8.69406605e+00 -3.40585022e+01  6.13556802e-01  1.90000000e+01
9.40694749e-01 -3.68780279e+00 -8.78658831e-01  3.00000000e+00
8.69283867e+00 -3.40785103e+01  1.84316790e+00  1.90000000e+01
3.24897742e+00 -1.27462435e+01 -2.55684066e+00  2.00000000e+00
8.68731785e+00 -3.41065674e+01  3.07921243e+00  1.60000000e+01
3.30207849e+00 -1.29734917e+01 -2.12031293e+00  2.70000000e+01
3.30772710e+00 -1.30051727e+01 -1.64767361e+00  2.00000000e+01
3.31679988e+00 -1.30599318e+01 -1.17886853e+00  2.30000000e+01
3.34193850e+00 -1.31781940e+01 -7.12501764e-01  4.30000000e+01
8.10998821e+00 -3.20033836e+01 -5.76278448e-01  7.30000000e+01
1.02787662e+00 -4.08009100e+00 -1.12741590e+00  3.00000000e+00
8.62696648e+00 -3.42694244e+01  6.16837859e-01  1.90000000e+01
2.53626990e+00 -1.00824175e+01 -2.40022755e+00  1.00000000e+00
8.61862373e+00 -3.42868500e+01  1.85279763e+00  1.90000000e+01
3.20190501e+00 -1.27379074e+01 -2.55302453e+00  2.00000000e+00
8.61882210e+00 -3.43129654e+01  3.09524894e+00  1.60000000e+01
3.26048231e+00 -1.29901180e+01 -2.12125158e+00  3.00000000e+01
3.25941443e+00 -1.30050859e+01 -1.64621115e+00  2.40000000e+01
3.26974201e+00 -1.30656319e+01 -1.17834556e+00  2.10000000e+01
3.29531193e+00 -1.31775780e+01 -7.11873710e-01  4.30000000e+01
7.99047899e+00 -3.20004539e+01 -5.75720012e-01  7.30000000e+01
1.01012492e+00 -4.07258081e+00 -1.12431002e+00  5.00000000e+00
8.56601620e+00 -3.45361176e+01  6.21096253e-01  1.90000000e+01
2.50481057e+00 -1.01063414e+01 -2.40382695e+00  1.00000000e+00
8.56130886e+00 -3.45687561e+01  1.86640513e+00  1.90000000e+01
3.15047979e+00 -1.27304993e+01 -2.54920840e+00  2.00000000e+00
8.54848194e+00 -3.45686836e+01  3.11546922e+00  1.60000000e+01
3.20858574e+00 -1.29847212e+01 -2.11843586e+00  3.60000000e+01
3.21447396e+00 -1.30183125e+01 -1.64645493e+00  2.60000000e+01
3.39819574e+00 -1.37830448e+01 -1.24196935e+00  1.40000000e+01
3.24365091e+00 -1.31759911e+01 -7.11141050e-01  4.30000000e+01
7.87824488e+00 -3.20262108e+01 -5.75685084e-01  7.30000000e+01
9.91776407e-01 -4.05919170e+00 -1.11965120e+00  7.00000000e+00
8.50388336e+00 -3.48314781e+01  6.25843287e-01  1.90000000e+01
2.47144675e+00 -1.01306000e+01 -2.40742612e+00  1.00000000e+00
8.49170780e+00 -3.48079872e+01  1.87770963e+00  1.90000000e+01
3.10695410e+00 -1.27452335e+01 -2.54997158e+00  2.00000000e+00
8.48152161e+00 -3.48189926e+01  3.13534069e+00  1.70000000e+01
3.16183758e+00 -1.29900846e+01 -2.11749721e+00  3.10000000e+01
3.16205120e+00 -1.30107164e+01 -1.64401758e+00  2.60000000e+01
3.24333239e+00 -1.33553238e+01 -1.20240057e+00  2.40000000e+01
3.19340205e+00 -1.31697655e+01 -7.10198998e-01  4.00000000e+01
7.76687908e+00 -3.20554581e+01 -5.75720012e-01  7.30000000e+01
9.73985493e-01 -4.04760361e+00 -1.11551023e+00  7.00000000e+00
8.44260025e+00 -3.50850182e+01  6.29892290e-01  2.00000000e+01
2.42417216e+00 -1.00818977e+01 -2.39392900e+00  1.00000000e+00
8.42241478e+00 -3.50549202e+01  1.88943291e+00  1.90000000e+01
3.06061244e+00 -1.27483654e+01 -2.54844522e+00  2.00000000e+00
8.41848850e+00 -3.50924988e+01  3.15730381e+00  1.70000000e+01
3.11874461e+00 -1.30004978e+01 -2.11749721e+00  3.00000000e+01
3.11380005e+00 -1.29998960e+01 -1.64133644e+00  2.60000000e+01
3.18464613e+00 -1.33161821e+01 -1.19786847e+00  2.10000000e+01
3.14878321e+00 -1.31763983e+01 -7.09989667e-01  4.30000000e+01
7.69763327e+00 -3.22613258e+01 -5.78931212e-01  1.80000000e+01
1.97549570e+00 -8.33094788e+00 -2.29417205e+00  2.00000000e+00
8.37540436e+00 -3.53477707e+01  6.34080827e-01  2.00000000e+01
2.39525032e+00 -1.01168461e+01 -2.40022755e+00  1.00000000e+00
8.36621475e+00 -3.53639870e+01  1.90450573e+00  2.00000000e+01
3.01922560e+00 -1.27622652e+01 -2.54920840e+00  2.00000000e+00
8.36165524e+00 -3.53722878e+01  3.17996430e+00  1.70000000e+01
3.07198286e+00 -1.30055380e+01 -2.11655855e+00  3.60000000e+01
3.06931591e+00 -1.30145512e+01 -1.64182401e+00  2.80000000e+01
3.13041615e+00 -1.32840052e+01 -1.19403362e+00  2.60000000e+01
3.10231352e+00 -1.31853647e+01 -7.09885001e-01  4.30000000e+01
7.76972628e+00 -3.30744629e+01 -5.93032777e-01  1.90000000e+01
1.95167196e+00 -8.36036873e+00 -2.30038381e+00  2.00000000e+00
1.10856018e+01 -4.75247841e+01  8.51817071e-01  3.10000000e+01
2.37053871e+00 -1.01706944e+01 -2.41102529e+00  1.00000000e+00
2.98000050e+00 -1.27956724e+01 -2.55378771e+00  2.00000000e+00
1.09891434e+01 -4.72230263e+01  4.24186993e+00  2.00000000e+01
3.02433062e+00 -1.30065613e+01 -2.11499429e+00  3.10000000e+01
3.02162290e+00 -1.30155172e+01 -1.64060521e+00  2.60000000e+01
3.07907438e+00 -1.32735023e+01 -1.19211626e+00  2.80000000e+01
3.05401564e+00 -1.31863842e+01 -7.09361613e-01  4.00000000e+01
7.93174696e+00 -3.43015251e+01 -6.14534140e-01  2.00000000e+01
1.92247760e+00 -8.36712933e+00 -2.30038381e+00  2.00000000e+00
1.09071131e+01 -4.75086212e+01  8.50839734e-01  3.10000000e+01
2.33153462e+00 -1.01637125e+01 -2.40742612e+00  1.00000000e+00
2.93093181e+00 -1.27868595e+01 -2.54997158e+00  2.00000000e+00
1.08188982e+01 -4.72377968e+01  4.23977852e+00  4.10000000e+01
2.97582412e+00 -1.30035610e+01 -2.11280417e+00  3.60000000e+01
2.97484493e+00 -1.30201788e+01 -1.63987398e+00  2.80000000e+01
3.03671312e+00 -1.33016520e+01 -1.19368505e+00  2.30000000e+01
3.00663590e+00 -1.31911221e+01 -7.09047616e-01  4.30000000e+01
7.90070581e+00 -3.47189751e+01 -6.21515155e-01  2.10000000e+01
1.88814771e+00 -8.35117817e+00 -2.29417205e+00  2.00000000e+00
1.07174129e+01 -4.74410706e+01  8.48954856e-01  3.10000000e+01
2.28917789e+00 -1.01413736e+01 -2.40022755e+00  1.00000000e+00
1.06618834e+01 -4.72720528e+01  2.53965473e+00  4.20000000e+01
2.88541365e+00 -1.27931824e+01 -2.54920840e+00  2.00000000e+00
1.06504412e+01 -4.72597237e+01  4.23838377e+00  4.10000000e+01
2.93041635e+00 -1.30138693e+01 -2.11280417e+00  3.40000000e+01
2.92807150e+00 -1.30246744e+01 -1.63914287e+00  3.00000000e+01
2.95751214e+00 -1.31878948e+01 -7.08314896e-01  4.30000000e+01
1.05939827e+01 -4.73171577e+01 -8.46371889e-01  5.70000000e+01
1.86905074e+00 -8.40297699e+00 -2.30659556e+00  2.00000000e+00
1.05083637e+01 -4.72829895e+01  8.45464408e-01  3.00000000e+01
2.26052403e+00 -1.01797419e+01 -2.40742612e+00  1.00000000e+00
1.04803734e+01 -4.72348900e+01  2.53567719e+00  4.20000000e+01
2.83648825e+00 -1.27840109e+01 -2.54539227e+00  2.00000000e+00
1.04836836e+01 -4.72888298e+01  4.23768616e+00  4.10000000e+01
2.88454413e+00 -1.30220900e+01 -2.11249137e+00  3.10000000e+01
2.87830377e+00 -1.30154324e+01 -1.63670540e+00  2.60000000e+01
7.01172256e+00 -3.17589550e+01 -2.84546065e+00  1.00000000e+01
2.91146088e+00 -1.31981382e+01 -7.08314896e-01  4.00000000e+01
1.04175673e+01 -4.73030777e+01 -8.45464408e-01  5.70000000e+01
1.83493924e+00 -8.39467239e+00 -2.30245447e+00  2.00000000e+00
1.03381252e+01 -4.72959366e+01  8.45045507e-01  3.00000000e+01
2.22164845e+00 -1.01723394e+01 -2.40382695e+00  1.00000000e+00
1.03120260e+01 -4.72555695e+01  2.53483987e+00  4.20000000e+01
2.78794026e+00 -1.27866488e+01 -2.54386568e+00  2.00000000e+00
1.02958698e+01 -4.72607498e+01  4.23175955e+00  4.10000000e+01
2.83553576e+00 -1.30267849e+01 -2.11155272e+00  3.40000000e+01
2.83116603e+00 -1.30176411e+01 -1.63573050e+00  2.60000000e+01
6.89574623e+00 -3.17598724e+01 -2.84336877e+00  1.00000000e+01
2.86264467e+00 -1.32067690e+01 -7.08210230e-01  3.70000000e+01
1.02464581e+01 -4.73117905e+01 -8.44975770e-01  5.70000000e+01
1.80400205e+00 -8.39347076e+00 -2.30038381e+00  2.00000000e+00
1.01579943e+01 -4.73022270e+01  8.44487011e-01  3.00000000e+01
1.01470041e+01 -4.72912827e+01  2.53483987e+00  4.20000000e+01
2.74164295e+00 -1.27886238e+01 -2.54233909e+00  2.00000000e+00
1.01241646e+01 -4.72652321e+01  4.22897100e+00  2.00000000e+01
2.78797913e+00 -1.30269451e+01 -2.10998845e+00  4.10000000e+01
2.78385115e+00 -1.30298719e+01 -1.63597417e+00  2.40000000e+01
2.84337735e+00 -1.33198690e+01 -1.19159329e+00  2.00000000e+00
2.81735754e+00 -1.32205877e+01 -7.08419561e-01  3.40000000e+01
1.00795841e+01 -4.73394432e+01 -8.44836056e-01  5.70000000e+01
1.76990020e+00 -8.37703609e+00 -2.29417205e+00  2.00000000e+00
9.99611664e+00 -4.73121758e+01  8.44068170e-01  3.00000000e+01
5.05142391e-01 -2.39293313e+00 -5.64627171e-01  1.00000000e+00
9.98516655e+00 -4.73420448e+01  2.53567719e+00  4.20000000e+01
2.70265460e+00 -1.28250103e+01 -2.54768181e+00  2.00000000e+00
9.95500469e+00 -4.72807884e+01  4.22722769e+00  2.00000000e+01
2.74028730e+00 -1.30148554e+01 -2.10654664e+00  3.30000000e+01
2.73980999e+00 -1.30351458e+01 -1.63548672e+00  2.40000000e+01
1.07719049e+01 -5.12938042e+01  8.30135250e+00  2.10000000e+01
2.79236388e+00 -1.33082638e+01 -1.18967581e+00  1.80000000e+01
2.76981401e+00 -1.32122650e+01 -7.07477510e-01  3.10000000e+01
9.90854168e+00 -4.73469391e+01 -8.44347417e-01  5.70000000e+01
1.74682868e+00 -8.40555573e+00 -2.30038381e+00  2.00000000e+00
9.82765198e+00 -4.73311195e+01  8.43788981e-01  3.00000000e+01
4.96390730e-01 -2.39277363e+00 -5.64177275e-01  1.10000000e+01
9.81351280e+00 -4.73044968e+01  2.53190923e+00  4.20000000e+01
2.65532851e+00 -1.28108339e+01 -2.54310250e+00  2.00000000e+00
9.79897308e+00 -4.73174362e+01  4.22757626e+00  2.00000000e+01
2.69564223e+00 -1.30282106e+01 -2.10717249e+00  2.00000000e+01
6.31824827e+00 -3.05633812e+01  3.83206010e+00  1.20000000e+01
2.69348717e+00 -1.30407419e+01 -1.63499928e+00  2.60000000e+01
2.74821806e+00 -1.33174515e+01 -1.18967581e+00  2.30000000e+01
2.72166228e+00 -1.32120714e+01 -7.06954181e-01  3.10000000e+01
9.75309563e+00 -4.73873672e+01 -8.44487011e-01  5.70000000e+01
1.71283841e+00 -8.38888931e+00 -2.29417205e+00  2.00000000e+00
9.66743946e+00 -4.73477669e+01  8.43509674e-01  3.00000000e+01
4.85337049e-01 -2.37913108e+00 -5.60578048e-01  8.00000000e+00
9.64673805e+00 -4.73306313e+01  2.53149056e+00  4.20000000e+01
2.61764503e+00 -1.28546515e+01 -2.54997158e+00  2.00000000e+00
9.63453770e+00 -4.73552589e+01  4.22792482e+00  4.10000000e+01
2.65675545e+00 -1.30583696e+01 -2.11061406e+00  3.00000000e+01
2.64469767e+00 -1.30223675e+01 -1.63158691e+00  2.20000000e+01
1.03855906e+01 -5.11839561e+01  8.27194214e+00  2.10000000e+01
2.67783570e+00 -1.32210236e+01 -7.06954181e-01  2.80000000e+01
9.57414341e+00 -4.73544884e+01 -8.43300283e-01  5.70000000e+01
1.69261396e+00 -8.43240452e+00 -2.30452490e+00  2.00000000e+00
9.49975204e+00 -4.73694687e+01  8.43300283e-01  3.00000000e+01
4.77029622e-01 -2.38081074e+00 -5.60578048e-01  2.70000000e+01
9.48537827e+00 -4.73836060e+01  2.53253722e+00  4.20000000e+01
2.57037830e+00 -1.28401623e+01 -2.54539227e+00  2.00000000e+00
9.47198296e+00 -4.73596001e+01  4.22548485e+00  4.10000000e+01
2.66379976e+00 -1.33310089e+01 -2.15316439e+00  7.00000000e+00
2.59961271e+00 -1.30334663e+01 -1.63183057e+00  2.20000000e+01
1.04740086e+01 -5.25605011e+01  8.48844814e+00  2.20000000e+01
2.65477943e+00 -1.33221712e+01 -1.18845570e+00  5.00000000e+00
1.01652403e+01 -5.10575371e+01  1.01193647e+01  2.50000000e+01
2.62816215e+00 -1.32126608e+01 -7.06012130e-01  2.50000000e+01
9.40801239e+00 -4.73836937e+01 -8.43230486e-01  5.70000000e+01
1.66466415e+00 -8.44584370e+00 -2.30659556e+00  2.00000000e+00
9.33279705e+00 -4.73944893e+01  8.43160689e-01  3.00000000e+01
4.69092250e-01 -2.38437366e+00 -5.61027944e-01  2.30000000e+01
9.31607246e+00 -4.73968277e+01  2.53149056e+00  4.20000000e+01
2.51872754e+00 -1.28143797e+01 -2.53852296e+00  2.00000000e+00
9.30276775e+00 -4.73728218e+01  4.22374153e+00  4.10000000e+01
2.63702345e+00 -1.34410238e+01 -2.16943336e+00  6.00000000e+00
2.55448270e+00 -1.30444098e+01 -1.63207436e+00  2.40000000e+01
2.60672951e+00 -1.33235359e+01 -1.18775845e+00  2.00000000e+00
2.58700156e+00 -1.32472382e+01 -7.07372844e-01  1.80000000e+01
9.24025822e+00 -4.74044685e+01 -8.43021035e-01  5.70000000e+01
1.63076961e+00 -8.42884159e+00 -2.30038381e+00  2.00000000e+00
9.16198730e+00 -4.73992882e+01  8.42671990e-01  3.00000000e+01
4.56701815e-01 -2.36494923e+00 -5.56079030e-01  1.60000000e+01
9.14451599e+00 -4.73976822e+01  2.52981567e+00  4.20000000e+01
2.47398138e+00 -1.28230944e+01 -2.53852296e+00  2.00000000e+00
9.12905216e+00 -4.73619690e+01  4.21990681e+00  2.00000000e+01
2.51538348e+00 -1.30621977e+01 -2.10685968e+00  2.00000000e+00
2.50968432e+00 -1.30571470e+01 -1.63256192e+00  2.40000000e+01
6.10932875e+00 -3.18149834e+01 -2.83430457e+00  1.00000000e+01
9.07397652e+00 -4.74325066e+01 -8.42951238e-01  5.70000000e+01
1.60133636e+00 -8.43448353e+00 -2.30038381e+00  2.00000000e+00
8.99573708e+00 -4.74270554e+01  8.42602193e-01  3.00000000e+01
8.97380924e+00 -4.74018402e+01  2.52835035e+00  4.10000000e+01
2.44308209e+00 -1.29049540e+01 -2.55302453e+00  2.00000000e+00
8.96144962e+00 -4.73817978e+01  4.21886063e+00  2.00000000e+01
2.46720672e+00 -1.30573120e+01 -2.10466957e+00  4.00000000e+00
9.60404396e+00 -5.08766251e+01  6.35719299e+00  3.30000000e+01
2.46077967e+00 -1.30482693e+01 -1.63036811e+00  2.20000000e+01
2.50848556e+00 -1.33139973e+01 -1.18531811e+00  2.00000000e+00
9.55738831e+00 -5.07753067e+01  1.00430412e+01  2.50000000e+01
2.55130005e+00 -1.35672550e+01 -7.23492324e-01  3.00000000e+00
8.90761757e+00 -4.74599571e+01 -8.42881441e-01  5.70000000e+01
8.82647133e+00 -4.74385033e+01  8.42253149e-01  3.00000000e+01
1.89498270e+00 -1.01946220e+01 -2.39392900e+00  1.00000000e+00
8.80464840e+00 -4.74132347e+01  2.52730346e+00  4.10000000e+01
2.38655138e+00 -1.28516340e+01 -2.54081273e+00  2.00000000e+00
8.79600048e+00 -4.74127922e+01  4.21886063e+00  4.10000000e+01
2.42089128e+00 -1.30619612e+01 -2.10404372e+00  4.00000000e+00
9.42422962e+00 -5.08981361e+01  6.35573053e+00  3.30000000e+01
2.41341233e+00 -1.30470219e+01 -1.62914956e+00  2.40000000e+01
2.45967197e+00 -1.33231020e+01 -1.18531811e+00  5.00000000e+00
9.36868477e+00 -5.07465820e+01  1.00308294e+01  2.50000000e+01
2.54377389e+00 -1.37921333e+01 -7.35006213e-01  3.00000000e+00
8.73682690e+00 -4.74632301e+01 -8.42392743e-01  5.60000000e+01
8.67087460e+00 -4.75241089e+01  8.43230486e-01  3.00000000e+01
1.85659087e+00 -1.01858377e+01 -2.39032984e+00  1.00000000e+00
8.66985512e+00 -4.76126671e+01  2.53630543e+00  4.20000000e+01
2.33732319e+00 -1.28487062e+01 -2.53852296e+00  2.00000000e+00
8.62003136e+00 -4.74329491e+01  4.21781492e+00  4.10000000e+01
2.36750007e+00 -1.30534115e+01 -1.62890577e+00  2.20000000e+01
9.17144585e+00 -5.07187576e+01  1.00186176e+01  2.50000000e+01
2.55001664e+00 -1.41158342e+01 -7.51753747e-01  3.00000000e+00
9.13140774e+00 -5.05981941e+01  1.18702173e+01  2.30000000e+01
8.63218021e+00 -4.78319168e+01 -8.48396420e-01  5.80000000e+01
4.29899365e-01 -2.40371990e+00 -6.54294550e-01  3.00000000e+00
8.52829075e+00 -4.77327385e+01  8.46371889e-01  3.00000000e+01
1.81856036e+00 -1.01887360e+01 -2.38943005e+00  1.00000000e+00
2.29245830e+00 -1.28567867e+01 -2.53852296e+00  2.00000000e+00
8.44881058e+00 -4.74313660e+01  4.21502590e+00  4.10000000e+01
2.32909203e+00 -1.30886745e+01 -2.10560822e+00  1.20000000e+01
2.32068205e+00 -1.30678654e+01 -1.62963700e+00  2.40000000e+01
2.28725028e+00 -1.28926687e+01 -1.14557505e+00  5.00000000e+00
8.47642231e+00 -4.78767014e+01 -2.54813337e+00  3.90000000e+01
8.93979645e+00 -5.05453300e+01  1.18504219e+01  2.30000000e+01
4.22839969e-01 -2.41281724e+00 -6.56365097e-01  8.00000000e+00
8.36787701e+00 -4.77489357e+01  8.46162438e-01  3.00000000e+01
1.78409088e+00 -1.01908712e+01 -2.38853025e+00  1.00000000e+00
8.34000397e+00 -4.76877747e+01  2.53714275e+00  4.20000000e+01
2.24688959e+00 -1.28608418e+01 -2.53775978e+00  2.00000000e+00
8.27703094e+00 -4.74252396e+01  4.21188831e+00  2.00000000e+01
2.28261828e+00 -1.30788116e+01 -2.10279226e+00  2.60000000e+01
2.27733588e+00 -1.30754890e+01 -1.62963700e+00  2.40000000e+01
8.31214237e+00 -4.78730659e+01 -2.54645848e+00  3.90000000e+01
8.19709682e+00 -4.77542038e+01  8.45743656e-01  3.00000000e+01
1.74587333e+00 -1.01816711e+01 -2.38493109e+00  1.00000000e+00
8.18562984e+00 -4.77874680e+01  2.54091096e+00  4.20000000e+01
2.20290279e+00 -1.28604822e+01 -2.53623343e+00  2.00000000e+00
8.12038708e+00 -4.74563522e+01  4.21223688e+00  4.10000000e+01
2.23395658e+00 -1.30691748e+01 -2.09997654e+00  1.10000000e+01
2.22900939e+00 -1.30677052e+01 -1.62768710e+00  2.60000000e+01
8.60749054e+00 -5.05151672e+01  8.11613369e+00  2.00000000e+01
2.23825932e+00 -1.31357718e+01 -1.16579521e+00  2.00000000e+00
8.14498806e+00 -4.79017868e+01 -2.54645848e+00  3.90000000e+01
8.74700737e+00 -5.15512238e+01 -9.12691057e-01  6.30000000e+01
8.03035164e+00 -4.77825279e+01  8.45743656e-01  3.00000000e+01
1.72064507e+00 -1.02492037e+01 -2.39932799e+00  1.00000000e+00
1.04751129e+01 -6.24628334e+01  3.31925154e+00  4.90000000e+01
2.15734982e+00 -1.28642225e+01 -2.53547025e+00  2.00000000e+00
7.95600557e+00 -4.74922676e+01  4.21293402e+00  4.10000000e+01
2.19223356e+00 -1.31002741e+01 -2.10373092e+00  2.00000000e+01
2.18338227e+00 -1.30754051e+01 -1.62768710e+00  2.40000000e+01
2.19862270e+00 -1.31808443e+01 -1.16910708e+00  1.80000000e+01
7.97510481e+00 -4.79141655e+01 -2.54562116e+00  3.90000000e+01
8.56700611e+00 -5.15814400e+01 -9.12691057e-01  6.30000000e+01
7.86091375e+00 -4.77944870e+01  8.45464408e-01  3.00000000e+01
1.67727673e+00 -1.02089958e+01 -2.38853025e+00  1.00000000e+00
1.02634792e+01 -6.25384293e+01  3.32134461e+00  4.90000000e+01
2.11116004e+00 -1.28639250e+01 -2.53394365e+00  2.00000000e+00
7.78630924e+00 -4.74961586e+01  4.21084261e+00  4.10000000e+01
2.14649296e+00 -1.31078463e+01 -2.10373092e+00  2.20000000e+01
2.13708496e+00 -1.30790291e+01 -1.62719953e+00  2.60000000e+01
8.23108292e+00 -5.04297562e+01  8.09298134e+00  2.00000000e+01
2.15131712e+00 -1.31805735e+01 -1.16840994e+00  2.30000000e+01
7.80587769e+00 -4.79298859e+01 -2.54499316e+00  3.90000000e+01
8.37086201e+00 -5.15123444e+01 -9.10945833e-01  6.30000000e+01
3.91683072e-01 -2.43176889e+00 -6.59988582e-01  4.00000000e+00
7.69021845e+00 -4.77979393e+01  8.45045507e-01  3.00000000e+01
1.64719725e+00 -1.02494211e+01 -2.39662838e+00  1.00000000e+00
1.00337191e+01 -6.25028801e+01  3.31757665e+00  4.90000000e+01
2.06375384e+00 -1.28557081e+01 -2.53089070e+00  2.00000000e+00
7.61731291e+00 -4.75033760e+01  4.20909929e+00  4.10000000e+01
2.09666157e+00 -1.30899019e+01 -2.09966373e+00  5.00000000e+00
2.09173226e+00 -1.30883703e+01 -1.62744343e+00  2.60000000e+01
8.03879929e+00 -5.03567429e+01  8.07671261e+00  2.00000000e+01
7.63789892e+00 -4.79528923e+01 -2.54478359e+00  3.90000000e+01
8.15961266e+00 -5.13437576e+01 -9.07455325e-01  6.30000000e+01
3.81990314e-01 -2.42548776e+00 -6.57918036e-01  1.10000000e+01
7.52208710e+00 -4.78165894e+01  8.44905913e-01  3.00000000e+01
9.82662868e+00 -6.26085548e+01  3.32134461e+00  4.90000000e+01
2.02069259e+00 -1.28744707e+01 -2.53318048e+00  2.00000000e+00
7.44898462e+00 -4.75139275e+01  4.20770502e+00  2.00000000e+01
2.04851294e+00 -1.30815287e+01 -2.09716082e+00  2.00000000e+00
2.04633856e+00 -1.30975523e+01 -1.62768710e+00  2.80000000e+01
2.09396195e+00 -1.34177198e+01 -1.18810713e+00  2.00000000e+00
7.46615648e+00 -4.79516335e+01 -2.54331827e+00  3.90000000e+01
8.01902103e+00 -5.16209030e+01 -9.11853313e-01  6.30000000e+01
3.73521388e-01 -2.42680645e+00 -6.57918036e-01  1.90000000e+01
7.35330582e+00 -4.78306999e+01  8.44696462e-01  3.00000000e+01
4.08467710e-01 -2.66003132e+00 -6.21314824e-01  2.00000000e+00
7.33645296e+00 -4.78322334e+01  2.53609610e+00  4.20000000e+01
1.97574115e+00 -1.28814459e+01 -2.53318048e+00  2.00000000e+00
7.28006029e+00 -4.75199471e+01  4.20596170e+00  2.00000000e+01
2.00224066e+00 -1.30846930e+01 -2.09653497e+00  4.00000000e+00
2.00030708e+00 -1.31026535e+01 -1.62744343e+00  3.00000000e+01
2.07294130e+00 -1.35943336e+01 -1.20309782e+00  2.00000000e+00
7.29873276e+00 -4.79774017e+01 -2.54331827e+00  3.90000000e+01
7.83877945e+00 -5.16485786e+01 -9.11853313e-01  6.30000000e+01
3.64186227e-01 -2.42236423e+00 -6.56365097e-01  2.10000000e+01
7.18570518e+00 -4.78521194e+01  8.44626665e-01  3.00000000e+01
3.97156537e-01 -2.64795089e+00 -6.18165493e-01  3.00000000e+00
1.93018222e+00 -1.28843803e+01 -2.53241706e+00  2.00000000e+00
7.11827230e+00 -4.75726585e+01  4.20840216e+00  4.10000000e+01
1.96122420e+00 -1.31228619e+01 -2.10154080e+00  4.00000000e+00
1.95338845e+00 -1.31017017e+01 -1.62646842e+00  3.30000000e+01
2.06127787e+00 -1.38419075e+01 -1.22436380e+00  2.00000000e+00
7.12300301e+00 -4.79472694e+01 -2.54038739e+00  1.90000000e+01
7.65082169e+00 -5.16241989e+01 -9.10945833e-01  6.30000000e+01
3.55167240e-01 -2.41979814e+00 -6.55329823e-01  2.70000000e+01
7.02037048e+00 -4.78887787e+01  8.44836056e-01  3.00000000e+01
3.75771105e-01 -2.56640911e+00 -5.98819733e-01  3.00000000e+00
7.00523138e+00 -4.79020462e+01  2.53714275e+00  4.20000000e+01
1.88462710e+00 -1.28871536e+01 -2.53165388e+00  2.00000000e+00
6.94928932e+00 -4.75774994e+01  4.20665884e+00  4.10000000e+01
1.96616411e+00 -1.34775620e+01 -2.15723157e+00  9.00000000e+00
1.90735531e+00 -1.31064768e+01 -1.62622464e+00  6.00000000e+01
2.02670527e+00 -1.39436588e+01 -1.23273087e+00  2.00000000e+00
6.96131706e+00 -4.80113754e+01 -2.54248095e+00  3.90000000e+01
7.44195223e+00 -5.14526787e+01 -9.07455325e-01  6.30000000e+01
3.47540230e-01 -2.42676020e+00 -6.56882763e-01  7.00000000e+00
6.82088089e+00 -4.76873283e+01  8.40856969e-01  3.00000000e+01
3.69015366e-01 -2.58313847e+00 -6.02418959e-01  3.00000000e+00
6.79143047e+00 -4.75999680e+01  2.51987195e+00  1.00000000e+02
1.84129465e+00 -1.29053164e+01 -2.53394365e+00  2.00000000e+00
6.78148270e+00 -4.75896301e+01  4.20561314e+00  4.10000000e+01
1.86243176e+00 -1.31189508e+01 -1.62695587e+00  9.00000000e+01
4.50424671e+00 -3.17677078e+01 -2.80711198e+00  1.00000000e+01
6.73383427e+00 -4.76121826e+01 -2.52008104e+00  5.80000000e+01
6.72149229e+00 -4.76448936e+01 -8.39879572e-01  5.60000000e+01
3.52961093e-01 -2.52744937e+00 -6.83799982e-01  2.00000000e+00
6.64084721e+00 -4.76137962e+01  8.39146614e-01  1.00000000e+02
3.70212346e-01 -2.65775490e+00 -6.19515240e-01  5.00000000e+00
6.62330723e+00 -4.76095352e+01  2.51913929e+00  8.30000000e+01
1.79515302e+00 -1.29038858e+01 -2.53241706e+00  2.00000000e+00
6.61368084e+00 -4.76011696e+01  4.20456696e+00  4.10000000e+01
1.81663823e+00 -1.30918083e+01 -2.09340620e+00  1.00000000e+00
1.81690013e+00 -1.31273384e+01 -1.62719953e+00  1.00000000e+02
7.11336136e+00 -5.14611282e+01  8.22814083e+00  2.10000000e+01
4.39114571e+00 -3.17674465e+01 -2.80571771e+00  1.00000000e+01
6.56349707e+00 -4.76057167e+01 -2.51851106e+00  7.70000000e+01
6.55296516e+00 -4.76522141e+01 -8.39600384e-01  1.00000000e+02
3.48675847e-01 -2.55534315e+00 -6.91046894e-01  8.00000000e+00
6.49149942e+00 -4.76364098e+01  8.39181542e-01  9.10000000e+01
3.53714645e-01 -2.59904552e+00 -6.05568230e-01  3.00000000e+00
6.47102356e+00 -4.76103134e+01  2.51809239e+00  4.10000000e+01
1.75672328e+00 -1.29250259e+01 -2.53547025e+00  2.00000000e+00
6.46195936e+00 -4.76059227e+01  4.20317268e+00  2.00000000e+01
1.77550125e+00 -1.30974503e+01 -2.09340620e+00  1.00000000e+00
1.77591586e+00 -1.31349497e+01 -1.62744343e+00  8.80000000e+01
6.94848776e+00 -5.14597321e+01  8.22438622e+00  2.10000000e+01
4.29399252e+00 -3.18008327e+01 -2.80746078e+00  1.00000000e+01
6.41337729e+00 -4.76221466e+01 -2.51830196e+00  7.70000000e+01
6.40322685e+00 -4.76725655e+01 -8.39600384e-01  1.00000000e+02
3.42807502e-01 -2.57952523e+00 -6.97258592e-01  1.00000000e+01
6.32465696e+00 -4.76548157e+01  8.39111686e-01  1.00000000e+02
3.37470710e-01 -2.54617286e+00 -5.92970967e-01  1.80000000e+01
6.30373812e+00 -4.76246948e+01  2.51767373e+00  8.20000000e+01
1.70695674e+00 -1.28960457e+01 -2.52860093e+00  2.00000000e+00
6.29730940e+00 -4.76400414e+01  4.20421886e+00  4.10000000e+01
1.73442471e+00 -1.31388187e+01 -2.09903789e+00  1.00000000e+00
1.72746396e+00 -1.31213865e+01 -1.62500596e+00  4.80000000e+01
6.76366663e+00 -5.14445038e+01  8.21812916e+00  2.10000000e+01
4.18036222e+00 -3.17958698e+01 -2.80571771e+00  1.00000000e+01
6.53791046e+00 -4.97946396e+01  9.76217079e+00  2.40000000e+01
6.24788332e+00 -4.76501846e+01 -2.51861572e+00  7.70000000e+01
6.23496866e+00 -4.76807480e+01 -8.39356005e-01  1.00000000e+02
3.41483533e-01 -2.64009857e+00 -7.13305295e-01  1.10000000e+01
6.15903330e+00 -4.76825523e+01  8.39216411e-01  1.00000000e+02
3.24841261e-01 -2.51834440e+00 -5.86222470e-01  1.10000000e+01
6.13695240e+00 -4.76424484e+01  2.51746440e+00  4.10000000e+01
1.66118157e+00 -1.29138994e+01 -2.53089070e+00  2.00000000e+00
6.12741613e+00 -4.76340675e+01  4.20177841e+00  4.10000000e+01
1.68653727e+00 -1.31291180e+01 -2.09653497e+00  1.00000000e+00
1.68265998e+00 -1.31352129e+01 -1.62598097e+00  2.80000000e+01
6.55848169e+00 -5.12679367e+01  8.18621635e+00  2.10000000e+01
4.06581211e+00 -3.18267937e+01 -2.80711198e+00  1.00000000e+01
6.06941366e+00 -4.76430397e+01 -2.51704574e+00  5.70000000e+01
6.06697226e+00 -4.76903152e+01 -8.39146614e-01  4.00000000e+00
3.31563979e-01 -2.63941574e+00 -7.12787688e-01  1.00000000e+01
5.98348475e+00 -4.76988525e+01  8.39111686e-01  9.10000000e+01
3.16577703e-01 -2.52725267e+00 -5.88022053e-01  1.00000000e+01
5.96229219e+00 -4.76646194e+01  2.51746440e+00  8.20000000e+01
1.60945964e+00 -1.28848333e+01 -2.52402163e+00  2.00000000e+00
5.95624971e+00 -4.76838799e+01  4.20421886e+00  4.10000000e+01
1.63644910e+00 -1.31195307e+01 -2.09403205e+00  1.00000000e+00
3.94815588e+00 -3.18335686e+01 -2.80641484e+00  1.00000000e+01
5.89720297e+00 -4.76847878e+01 -2.51809239e+00  7.70000000e+01
5.89263344e+00 -4.77162056e+01 -8.39216411e-01  4.00000000e+00
3.25394183e-01 -2.66937828e+00 -7.20552266e-01  1.10000000e+01
5.80644369e+00 -4.77025986e+01  8.38797569e-01  7.00000000e+00
3.15072238e-01 -2.59223461e+00 -6.02868795e-01  1.00000000e+01
5.79587412e+00 -4.76851425e+01  2.51746440e+00  8.20000000e+01
1.56589079e+00 -1.29020672e+01 -2.52631116e+00  2.00000000e+00
5.78047991e+00 -4.76974831e+01  4.20352125e+00  4.10000000e+01
1.58882856e+00 -1.31293621e+01 -2.09465766e+00  1.00000000e+00
5.98369217e+00 -4.95916634e+01  7.91151762e+00  2.00000000e+01
3.83987164e+00 -3.18708973e+01 -2.80850673e+00  1.00000000e+01
5.73047686e+00 -4.77031059e+01 -2.51798773e+00  7.70000000e+01
5.72484493e+00 -4.77265587e+01 -8.39041948e-01  4.00000000e+00
3.24021488e-01 -2.73764372e+00 -7.38669574e-01  1.50000000e+01
5.64845753e+00 -4.77235756e+01  8.38832498e-01  6.00000000e+00
3.04187417e-01 -2.57391238e+00 -5.98369777e-01  1.00000000e+01
5.62985325e+00 -4.77090492e+01  2.51767373e+00  8.20000000e+01
1.52222431e+00 -1.29191532e+01 -2.52860093e+00  2.00000000e+00
5.61208010e+00 -4.77015381e+01  4.20212698e+00  4.10000000e+01
1.54712582e+00 -1.31502552e+01 -2.09716082e+00  1.00000000e+00
1.55498028e+00 -1.32568760e+01 -1.63889909e+00  1.21000000e+02
3.73137403e+00 -3.19078522e+01 -2.81059837e+00  1.00000000e+01
5.57110167e+00 -4.77119255e+01 -2.51746440e+00  5.80000000e+01
5.55890512e+00 -4.77522049e+01 -8.39146614e-01  5.00000000e+00
3.13396692e-01 -2.72526860e+00 -7.35046148e-01  1.80000000e+01
5.48206902e+00 -4.77449875e+01  8.38867366e-01  6.00000000e+00
2.88541913e-01 -2.51687670e+00 -5.84872723e-01  1.00000000e+01
5.46146488e+00 -4.77125397e+01  2.51683640e+00  8.20000000e+01
1.47490859e+00 -1.28851204e+01 -2.52096868e+00  2.00000000e+00
5.45568466e+00 -4.77357216e+01  4.20352125e+00  4.10000000e+01
1.50345421e+00 -1.31752014e+01 -2.10028934e+00  1.00000000e+00
3.62554574e+00 -3.19200497e+01 -2.81059837e+00  1.00000000e+01
5.40451527e+00 -4.77310829e+01 -2.51746440e+00  7.70000000e+01
5.39061928e+00 -4.77574081e+01 -8.38902235e-01  6.00000000e+00
2.90185660e-01 -2.60346866e+00 -7.01917291e-01  1.10000000e+01
5.31470394e+00 -4.77578697e+01  8.38762641e-01  1.00000000e+02
2.78678864e-01 -2.50818443e+00 -5.82623243e-01  1.90000000e+01
5.29709005e+00 -4.77511597e+01  2.51788306e+00  4.10000000e+01
1.43165493e+00 -1.29057999e+01 -2.52402163e+00  2.00000000e+00
5.28506756e+00 -4.77188339e+01  4.20038414e+00  2.00000000e+01
1.47482491e+00 -1.33374405e+01 -2.12531877e+00  1.00000000e+00
3.33763313e+00 -3.02319050e+01  3.73456430e+00  1.10000000e+01
1.50132239e+00 -1.36206017e+01 -1.68252826e+00  4.30000000e+01
3.51279306e+00 -3.19206276e+01 -2.80955243e+00  1.00000000e+01
5.42876482e+00 -4.94103050e+01  9.66218662e+00  2.30000000e+01
5.23830938e+00 -4.77536278e+01 -2.51767373e+00  5.80000000e+01
5.22388077e+00 -4.77759361e+01 -8.38902235e-01  4.00000000e+00
2.71974891e-01 -2.51995492e+00 -6.79141164e-01  1.80000000e+01
5.17496347e+00 -4.80266418e+01  8.43160689e-01  3.00000000e+01
2.65336066e-01 -2.46651554e+00 -5.72725356e-01  2.40000000e+01
